ply
format ascii 1.0
element vertex 1227
property float x
property float y
property float z
property uchar diffuse_red
property uchar diffuse_green
property uchar diffuse_blue
end_header
-49.532001 78.323997 29.639999 255 237 0
-48.882999 78.168999 29.607 255 237 0
-48.888 78.488998 29.858999 255 235 0
-49.473 79.037003 29.937 255 234 0
-48.358002 78.379997 29.478001 255 238 0
-47.702999 78.447998 29.290001 255 240 0
-48.305 79.036003 29.393 255 239 0
-47.692001 79.041 29.253 255 240 0
-49.728001 79.68 30.225 255 231 0
-48.882999 79.626999 29.794001 255 235 0
-48.775002 80.199997 30.198999 255 232 0
-48.326 79.726997 29.489 255 238 0
-47.567001 79.632004 29.337999 255 239 0
-47.687 80.058998 29.638 255 237 0
-46.306 79.043999 29.233 255 240 0
-44.956001 79.025002 29.368 255 239 0
-46.217999 79.625999 29.368 255 239 0
-47.016998 80.092003 29.618999 255 237 0
-44.860001 79.719002 29.563 255 237 0
-44.632999 80.262001 30 255 233 0
-48.275002 80.656998 30.546 255 228 0
-47.070999 80.594002 30.207001 255 231 0
-45.933998 80.525002 30.197001 255 232 0
-45.071999 80.804001 30.534 255 229 0
-73.184998 69.271004 37.740002 255 163 0
-73.998001 68.502998 37.296001 255 167 0
-71.968002 69.026001 37.962002 255 161 0
-72.529999 69.603996 37.973999 255 161 0
-71.292999 69.036003 38.452999 255 156 0
-71.693001 69.676003 38.377998 255 157 0
-64.755997 69.274002 39.047001 255 151 0
-64.268997 69.608002 38.333 255 157 0
-64.334 70.723 38.279999 255 158 0
-64.995003 70.728996 39.008999 255 151 0
-65.122002 69.600998 39.632999 255 145 0
-65.549004 70.301003 40.021999 255 142 0
-65.432999 70.734001 39.539001 255 146 0
-64.736 71.403999 38.298 255 158 0
-65.482002 71.289001 39.113998 255 150 0
-65.447998 71.960999 38.398998 255 157 0
-70.828003 69.614998 39.625999 255 146 0
-70.386002 69.517998 40.299999 255 139 0
-69.710999 69.232002 40.923 255 134 0
-69.396004 69.813004 41.171001 255 131 0
-68.987 69.614998 41.601002 255 127 0
-68.389999 69.592003 41.995998 255 124 0
-67.238998 69.004997 41.991001 255 124 0
-66.487999 69.064003 41.500999 255 128 0
-67.350998 69.605003 41.987 255 124 0
-68.345001 70.191002 41.949001 255 124 0
-68.934998 70.191002 41.620998 255 127 0
-67.755997 70.172997 41.991001 255 124 0
-68.931 70.777 41.390999 255 129 0
-68.345001 70.780998 41.639999 255 127 0
-67.754997 70.780998 41.650002 255 127 0
-67.099998 70.261002 41.597 255 128 0
-66.486 70.827003 40.786999 255 135 0
-67.151001 70.737999 41.376999 255 130 0
-65.383003 69.415001 40.243999 255 140 0
-65.968002 69.995003 40.794998 255 135 0
-67.754997 69.600998 42.123001 255 123 0
-82.450996 79.253998 44.409 255 102 0
-81.598 78.999001 43.853001 255 107 0
-81.230003 80.240997 44.314999 255 103 0
-80.647003 79.237999 43.692001 255 108 0
-80.741997 80.573997 44.289001 255 103 0
-77.557999 79.042999 42.634998 255 118 0
-78.302002 79.572998 43.209 255 113 0
-79.305 78.959 43.167999 255 113 0
-79.353996 79.753998 43.618999 255 109 0
-79.702003 80.625 44.035999 255 105 0
-78.530998 80.414001 43.530998 255 110 0
-80.323997 80.884003 44.368 255 102 0
-79.926003 81.336998 44.433998 255 102 0
-78.878998 81.375999 43.901001 255 106 0
-78.147003 82.538002 43.798 255 107 0
-79.579002 81.750999 44.361 255 102 0
-79.014 82.688004 44.250999 255 103 0
-76.919998 79.727997 42.721001 255 117 0
-77.723999 80.186996 43.212002 255 113 0
-77.111 80.197998 42.993999 255 115 0
-76.503998 80.764999 42.959999 255 115 0
-75.589996 80.473999 42.582001 255 119 0
-77.587997 81.932999 43.452 255 111 0
-77.072998 82.622002 43.449001 255 111 0
-75.666 81.5 42.863998 255 116 0
-75.667999 83.198997 43.183998 255 113 0
-74.528999 81.584 42.509998 255 119 0
-73.800003 80.196999 41.673 255 127 0
-73.099998 80.814003 41.702999 255 127 0
-72.734001 81.629997 41.875999 255 125 0
-74.288002 83.167 42.754002 255 117 0
-72.338997 83.197998 41.993 255 124 0
-78.695999 83.174004 44.402 255 102 0
-77.045998 83.208 43.68 255 108 0
-77.852997 83.140999 44.074001 255 105 0
-76.982002 83.771004 44.380001 255 102 0
-75.953003 83.760002 43.705002 255 108 0
-75.919998 84.371002 44.365002 255 102 0
-74.495003 83.778 43.117001 255 114 0
-73.244003 83.780998 42.563999 255 119 0
-73.277 84.374001 43.101002 255 114 0
-74.689003 84.250999 43.897999 255 107 0
-74.529999 84.912003 44.242001 255 103 0
-73.317001 84.954002 43.737999 255 108 0
-74.819 85.480003 44.418999 255 102 0
-73.485001 85.564003 44.051998 255 105 0
-75.250999 86.306999 44.514 255 101 0
-73.150002 86.079002 44.004002 255 106 0
-73.849998 86.882004 44.081001 255 105 0
-74.253998 87.621002 44.220001 255 104 0
-82.115997 80.291 44.990002 255 97 0
-81.267998 80.766998 44.924 255 97 0
-80.625999 81.296997 44.987999 255 97 0
-81.865997 80.790001 45.535 255 92 0
-81.197998 81.276001 45.582001 255 91 0
-80.658997 81.897003 45.561001 255 91 0
-81.932999 81.411003 46.120998 255 86 0
-81.572998 81.970001 46.091999 255 86 0
-81.344002 82.764 46.113998 255 86 0
-80.730003 82.575996 45.887001 255 88 0
-80.133003 81.876999 44.951 255 97 0
-79.682999 82.606003 44.756001 255 99 0
-80.134003 82.945999 45.528999 255 92 0
-82.235001 84.016998 46.355 255 84 0
-83.663002 83.654999 46.638 255 81 0
-80.730003 83.292 46.000999 255 87 0
-81.311996 84.156998 46.166 255 86 0
-80.782997 85.974998 45.987999 255 87 0
-79.533997 83.171997 45 255 96 0
-79.829002 83.749001 45.536999 255 92 0
-78.961998 83.674004 45.083 255 96 0
-77.946999 83.790001 44.869999 255 98 0
-80.016998 84.382004 45.706001 255 90 0
-78.815002 84.348999 45.219002 255 94 0
-79.314003 85.528 45.471001 255 92 0
-78.323997 85.083 45.147999 255 95 0
-78.313004 87.223 45.411999 255 93 0
-77.700996 84.181 44.964001 255 97 0
-77.015999 84.380997 44.751999 255 99 0
-77 85.469002 44.944 255 97 0
-76.337997 84.938004 44.727001 255 99 0
-76.894997 86.388 45.007 255 96 0
-75.956001 85.550003 44.765999 255 99 0
-70.661003 80.236 40.554001 255 137 0
-71.072998 81.455002 41.332001 255 130 0
-72.196999 82.141998 41.806 255 126 0
-70.749001 81.954002 41.448002 255 129 0
-70.887001 82.543999 41.596001 255 128 0
-69.655998 82.779999 41.212002 255 131 0
-69.199997 81.619003 40.728001 255 135 0
-68.786003 83.119003 41.071999 255 132 0
-68.279999 81.708 40.511002 255 137 0
-70.903 83.762001 41.705002 255 127 0
-72.026001 83.738998 42.027 255 124 0
-71.190002 84.330002 42.018002 255 124 0
-70.362999 83.307999 41.493 255 128 0
-69.499001 83.781998 41.341999 255 130 0
-69.780998 84.344002 41.577999 255 128 0
-70.053001 84.902 42.050999 255 123 0
-67.900002 84.519997 41.280998 255 130 0
-68.436996 84.960999 41.66 255 127 0
-72.154999 84.325996 42.501999 255 119 0
-72.403999 84.954002 43.173 255 113 0
-71.017998 85.017998 42.598999 255 118 0
-71.490997 85.477997 43.255001 255 112 0
-72.595001 85.566002 43.730999 255 108 0
-72.002998 86.091003 43.709999 255 108 0
-72.653 86.662003 43.854 255 107 0
-72.134003 87.376999 43.702999 255 108 0
-70.769997 86.727997 43.470001 255 110 0
-70.113998 85.473999 42.716 255 117 0
-70.688004 85.992996 43.279999 255 112 0
-69.536003 86.223 43.117001 255 114 0
-69.244003 85.556 42.573002 255 119 0
-68.609001 86.009003 42.701 255 117 0
-69.178001 86.732002 43.118 255 114 0
-70.114998 86.704002 43.401001 255 111 0
-70.417999 87.973 43.292999 255 112 0
-69.206001 87.290001 43.074001 255 114 0
-67.463997 82.289001 40.535999 255 137 0
-67.720001 83.336998 40.869999 255 134 0
-66.841003 82.564003 40.537998 255 137 0
-66.973 83.140999 40.637001 255 136 0
-67.136002 83.630997 40.738998 255 135 0
-67.789001 84.848 41.484001 255 129 0
-67.166 84.345001 40.999001 255 133 0
-66.661003 84.501999 40.724998 255 135 0
-67.041 84.918999 41.412998 255 129 0
-65.693001 83.736 40.230999 255 140 0
-65.653 82.603996 40.203999 255 140 0
-64.338997 83.174004 39.627998 255 145 0
-64.416 82.533997 39.618999 255 146 0
-64.384003 83.764 39.618 255 146 0
-65.598999 84.401001 40.257999 255 140 0
-65.625 84.998001 40.714001 255 136 0
-64.806999 84.345001 39.867001 255 143 0
-64.091003 84.399002 39.634998 255 145 0
-64.832001 84.994003 40.185001 255 140 0
-64.271004 85.052002 40.021999 255 142 0
-68.167 85.563004 42.271999 255 121 0
-66.970001 85.530998 41.997002 255 124 0
-64.247002 85.662003 40.771999 255 135 0
-65.764999 85.473999 41.456001 255 129 0
-65.417999 86.380997 41.978001 255 124 0
-64.605003 86.045998 41.388 255 129 0
-64.651001 86.700996 41.745998 255 126 0
-64.681999 87.277 41.993999 255 124 0
-66.953003 86.054001 42.317001 255 121 0
-68.067001 86.718002 42.821999 255 116 0
-67.421997 87.304001 42.681999 255 118 0
-67.139 86.600998 42.604 255 118 0
-66.339996 86.665001 42.348999 255 121 0
-66.209 87.248001 42.367001 255 120 0
-65.315002 87.403 42.235001 255 122 0
-59.563 70.021004 34.236 255 195 0
-59.409 70.160004 33.789001 255 199 0
-59.499001 70.780998 33.950001 255 197 0
-59.77 70.780998 34.325001 255 194 0
-59.441002 69.630997 34.908001 255 189 0
-59.820999 70.191002 34.915001 255 189 0
-59.895 70.780998 34.915001 255 189 0
-59.5 71.370003 34.324001 255 194 0
-59.506001 71.371002 34.918999 255 188 0
-59.523998 71.959999 34.308998 255 194 0
-59.535 71.973999 34.980999 255 188 0
-59.952999 73.022003 34.334999 255 194 0
-59.299999 72.492996 33.792999 255 199 0
-59.437 73.155998 33.771 255 199 0
-60.007999 73.098999 34.900002 255 189 0
-58.319 69.027 32.560001 255 210 0
-58.319 69.600998 32.335999 255 212 0
-58.935001 69.431 32.532001 255 210 0
-57.68 69.093002 32.620998 255 209 0
-57.729 69.600998 32.417999 255 211 0
-57.205002 69.101997 32.636002 255 209 0
-57.139999 69.600998 32.305 255 212 0
-58.887001 69.946999 32.592999 255 210 0
-58.32 70.207001 32.549999 255 210 0
-57.695 70.669998 32.527 255 210 0
-57.139999 70.191002 32.264 255 213 0
-57.144001 71.228996 32.367001 255 212 0
-56.549999 69.301003 32.556 255 210 0
-56.549999 69.600998 32.308998 255 212 0
-56.25 69.600998 32.556 255 210 0
-56.549999 70.191002 32.205002 255 213 0
-56.054001 70.191002 32.556 255 210 0
-56.549999 70.780998 32.264 255 213 0
-56.070999 70.780998 32.556 255 210 0
-57.701 71.901001 32.73 255 208 0
-57.132999 71.833 32.622002 255 209 0
-56.446999 71.388 32.521999 255 210 0
-58.319 68.780998 33.145 255 205 0
-58.909 69.071999 33.166 255 204 0
-59.214001 69.600998 33.145 255 205 0
-58.891998 68.969002 33.567001 255 201 0
-59.273998 69.600998 33.735001 255 199 0
-59.130001 70.191002 33.145 255 205 0
-59.206001 70.776001 33.644001 255 200 0
-58.453999 70.792 33.014999 255 206 0
-59.123001 69.011002 34.325001 255 194 0
-56.549999 69.011002 32.938 255 207 0
-56.083 69.600998 33.145 255 205 0
-56.167999 69.011002 33.735001 255 199 0
-55.997002 69.713997 33.691002 255 200 0
-55.908001 70.158997 33.099998 255 205 0
-55.903 70.788002 32.971001 255 206 0
-55.826 70.264999 33.743 255 199 0
-55.727001 70.780998 33.735001 255 199 0
-56.41 69.019997 34.362 255 194 0
-56.317001 69.606003 34.348 255 194 0
-57.167 68.945999 34.911999 255 189 0
-57.152 69.657997 34.911999 255 189 0
-58.368999 71.355003 33.115002 255 205 0
-59.035 71.371002 33.715 255 199 0
-58.346001 71.945999 33.077 255 205 0
-59.083 71.942001 33.742001 255 199 0
-58.909 72.550003 33.507999 255 201 0
-58.311001 72.551003 33.152 255 205 0
-58.93 73.175003 33.553001 255 201 0
-58.319 73.139999 33.424999 255 202 0
-57.738998 72.543999 33.103001 255 205 0
-57.203999 72.454002 33.201 255 204 0
-57.729 73.139999 33.509998 255 201 0
-56.914001 73.105003 33.698002 255 200 0
-55.98 71.294998 33.126999 255 205 0
-56.518002 71.973999 33.147999 255 205 0
-55.852001 71.945999 33.673 255 200 0
-55.659 71.370003 33.735001 255 199 0
-56.549999 72.550003 33.595001 255 201 0
-56.015999 72.514 33.763 255 199 0
-55.965 73.280998 33.82 255 199 0
-55.369999 71.959999 33.924999 255 198 0
-55.369999 72.550003 33.861 255 198 0
-54.814999 72.625999 33.807999 255 199 0
-54.773998 71.783997 34.256001 255 195 0
-55.369999 73.474998 33.792999 255 199 0
-55.057999 73.080002 33.713001 255 199 0
-59.497002 73.958 33.884998 255 198 0
-60.014 73.975998 34.330002 255 194 0
-60.195 74.319 34.915001 255 189 0
-59.995998 74.946999 34.421001 255 193 0
-59.465 75.017998 34.081001 255 196 0
-60.290001 74.869003 34.907001 255 189 0
-60.088001 75.499001 34.723999 255 190 0
-60.344002 75.499001 34.915001 255 189 0
-60.164001 76.306999 34.876999 255 189 0
-59.499001 76.088997 34.706001 255 190 0
-60.091 76.634003 35.016998 255 188 0
-58.984001 74.761002 33.889 255 198 0
-58.268002 74.028999 33.722 255 199 0
-57.349998 73.834 33.752998 255 199 0
-58.076 74.886002 33.808998 255 199 0
-58.18 75.644997 33.915001 255 198 0
-57.32 75.678001 33.75 255 199 0
-54.780998 73.728996 33.514 255 201 0
-55.095001 74.319 33.735001 255 199 0
-54.751999 74.851997 33.759998 255 199 0
-56.278 74.119003 33.783001 255 199 0
-55.417 74.882004 33.771999 255 199 0
-56.278999 75.598 33.783001 255 199 0
-55.419998 75.785004 33.908001 255 198 0
-54.68 76.061996 33.859001 255 198 0
-58.783001 75.953003 34.313 255 194 0
-58.827999 76.626999 34.905998 255 189 0
-57.817001 76.754997 34.299 255 194 0
-57.139999 76.678001 33.952 255 197 0
-57.129002 77.264 34.324001 255 194 0
-57.77 77.355003 34.830002 255 189 0
-57.132 77.845001 34.793999 255 190 0
-56.549999 76.678001 33.900002 255 198 0
-55.480999 76.670998 34.094002 255 196 0
-54.780998 76.678001 34.085999 255 196 0
-56.556 77.280998 34.243999 255 195 0
-55.66 77.274002 34.326 255 194 0
-56.465 77.914001 34.796001 255 190 0
-55.959999 77.858002 34.634998 255 191 0
-54.780998 77.041 34.325001 255 194 0
-54.780998 77.267998 34.493999 255 192 0
-55.369999 77.858002 34.561001 255 192 0
-54.639999 77.916 34.396 255 193 0
-59.449001 70.170998 35.342999 255 185 0
-59.499001 70.780998 35.263 255 185 0
-60.626999 69.782997 36.888 255 171 0
-60.707001 68.991997 36.880001 255 171 0
-60.108002 69.011002 36.921001 255 170 0
-59.577 69.587997 36.950001 255 170 0
-59.570999 70.561996 36.867001 255 171 0
-60.491001 70.616997 36.924 255 170 0
-61.833 71.989998 37.505001 255 165 0
-61.345001 70.825996 37.118 255 168 0
-60.660999 71.68 37.063999 255 169 0
-59.562 71.292 36.866001 255 171 0
-60.088001 71.959999 36.939999 255 170 0
-59.317001 72.071999 36.73 255 172 0
-61.389999 72.658997 37.306999 255 167 0
-60.678001 72.550003 36.974998 255 170 0
-60.599998 73.387001 36.705002 255 172 0
-59.492001 72.665001 36.168999 255 177 0
-60.011002 72.611 36.686001 255 172 0
-59.93 73.151001 36.174999 255 177 0
-64.25 73.079002 37.389999 255 166 0
-64.217003 71.959999 37.768002 255 162 0
-63.681999 72.142998 37.643002 255 164 0
-62.537998 72.594002 37.563 255 164 0
-62.921001 71.956001 37.646999 255 164 0
-63.832001 73.237999 37.287998 255 167 0
-61.845001 72.665001 37.460999 255 165 0
-62.436001 73.778 37.129002 255 168 0
-58.319 69.011002 35.150002 255 186 0
-58.784 69.427002 35.237 255 186 0
-57.729 69.600998 35.131001 255 187 0
-58.319 70.191002 35.339001 255 185 0
-58.909 70.780998 35.354 255 185 0
-58.305 70.792999 35.501999 255 183 0
-57.729 70.191002 35.373001 255 184 0
-56.837002 70.188004 34.986 255 188 0
-57.729 70.356003 35.504002 255 183 0
-57.139999 70.321999 35.504002 255 183 0
-57.139999 70.191002 35.821999 255 180 0
-57.483002 70.191002 36.094002 255 178 0
-57.140999 69.583 36.076 255 178 0
-57.956001 70.780998 36.098 255 178 0
-58.799 69.685997 36.862 255 171 0
-57.889 69.392998 36.696999 255 172 0
-58.051998 70.549004 36.417999 255 175 0
-58.868999 71.167 36.674999 255 172 0
-56.577 68.891998 36.067001 255 178 0
-56.549 69.589996 36.054001 255 178 0
-56.146999 69.007004 36.119999 255 178 0
-56.549999 70.637001 35.504002 255 183 0
-55.956001 70.785004 35.514 255 183 0
-55.882 70.749001 34.903 255 189 0
-56.514999 70.366997 36.098999 255 178 0
-55.972 70.285004 36.115002 255 178 0
-55.238998 70.153 36.083 255 178 0
-55.369999 70.780998 35.743999 255 181 0
-54.785 70.777 36.116001 255 178 0
-55.730999 69.468002 36.194 255 177 0
-55.369999 69.011002 36.431999 255 175 0
-54.780998 69.011002 36.550999 255 174 0
-54.772999 69.600998 36.433998 255 175 0
-58.909 71.370003 35.366001 255 184 0
-58.859001 71.555 35.486 255 183 0
-58.950001 71.946999 35.734001 255 181 0
-58.382 71.302002 36.085999 255 178 0
-58.792999 71.931 36.174999 255 177 0
-54.789001 71.721001 36.724998 255 172 0
-55.360001 71.996002 36.676998 255 172 0
-55.495998 71.889999 36.104 255 178 0
-54.780998 71.373001 36.094002 255 178 0
-55.620998 72.550003 36.683998 255 172 0
-55.679001 72.550003 36.094002 255 178 0
-55.459999 73.225998 36.709 255 172 0
-55.421001 73.167 36.096001 255 178 0
-55.369999 72.550003 36.869999 255 171 0
-54.780998 72.550003 37.041 255 169 0
-54.780998 73.139999 37.042 255 169 0
-63.722 73.785004 37.164001 255 168 0
-61.688999 73.747002 37.021 255 169 0
-61.903 74.863998 36.891998 255 170 0
-62.521999 74.929001 36.984001 255 170 0
-64.315002 75.470001 36.867001 255 171 0
-62.862 75.559998 36.848 255 171 0
-61.84 75.536003 36.699001 255 172 0
-60.935001 75.499001 36.094002 255 178 0
-60.528999 74.556 36.106998 255 178 0
-60.717999 75.416 35.488998 255 183 0
-60.133999 73.519997 36.085999 255 178 0
-60.678001 74.319 36.41 255 175 0
-61.285 74.847 36.686001 255 172 0
-61.358002 75.875 36.374001 255 175 0
-60.716 76.099998 35.431 255 184 0
-61.07 76.088997 36.094002 255 178 0
-60.616001 76.635002 35.533001 255 183 0
-60.776001 76.785004 36.040001 255 178 0
-60.088001 77.029999 35.504002 255 183 0
-59.387001 77.192001 35.568001 255 183 0
-60.078999 77.287003 36.145 255 177 0
-58.926998 77.323997 35.613998 255 182 0
-54.780998 73.617996 36.683998 255 172 0
-54.780998 73.537003 36.094002 255 178 0
-58.360001 77.494003 35.396999 255 184 0
-58.881001 77.830002 36.098999 255 178 0
-57.104 75.498001 39.601002 255 146 0
-57.139999 76.088997 39.210999 255 149 0
-56.548 75.833 39.612 255 146 0
-56.550999 76.700996 39.131001 255 150 0
-57.133999 76.664001 38.979 255 151 0
-56.161999 76.678001 39.632999 255 145 0
-57.139999 77.267998 38.922001 255 152 0
-56.557999 77.240997 39.119999 255 150 0
-57.141998 77.835999 39.104 255 150 0
-56.080002 77.267998 39.632999 255 145 0
-56.400002 77.955002 39.528 255 146 0
-51.599998 69.011002 31.375999 255 221 0
-51.155998 69.000999 30.978001 255 224 0
-51.234001 69.856003 31.326 255 221 0
-50.729 69.609001 30.782 255 226 0
-50.701 70.171997 30.761 255 226 0
-50.757999 70.772003 30.704 255 227 0
-51.206001 70.223 31.548 255 219 0
-50.881001 70.780998 31.375999 255 221 0
-52.091 69.009003 31.954 255 216 0
-51.941002 69.622002 31.924 255 216 0
-52.507 68.418999 32.546001 255 210 0
-52.271999 69.011002 32.556 255 210 0
-52.167 69.600998 32.556 255 210 0
-51.733002 70.144997 32.033001 255 215 0
-51.027 70.769997 31.976 255 215 0
-51.852001 70.283997 32.453999 255 211 0
-51.365002 70.811996 32.408001 255 211 0
-51.101002 71.391998 31.341999 255 221 0
-51.139999 71.762001 30.823 255 226 0
-51.495998 71.959999 31.375999 255 221 0
-51.395 72.570999 30.792 255 226 0
-51.868 72.517998 31.379 255 221 0
-52.043999 73.119003 31.378 255 221 0
-51.242001 71.686996 31.966 255 215 0
-51.806999 72.141998 31.976999 255 215 0
-51.317001 71.352997 32.486 255 211 0
-51.796001 72.015999 32.556999 255 210 0
-50.974998 71.370003 31.966 255 215 0
-52.096001 72.550003 31.966 255 215 0
-52.382999 73.171997 31.961 255 215 0
-51.932999 72.550003 32.556 255 210 0
-52.254002 73.139999 32.556 255 210 0
-52.528999 70.650002 33.709999 255 200 0
-53.009998 70.975998 34.321999 255 194 0
-52.422001 70.498001 34.325001 255 194 0
-52.41 70.262001 34.901001 255 189 0
-52.942001 70.759003 34.938999 255 188 0
-52.148998 69.600998 33.145 255 205 0
-52.154999 70.191002 33.145 255 205 0
-51.883999 70.794998 32.922001 255 207 0
-51.819 69.660004 33.717999 255 199 0
-52.214001 70.191002 33.735001 255 199 0
-52.422001 70.780998 33.495998 255 201 0
-51.473999 69.014 33.728001 255 199 0
-51.242001 68.421997 34.063999 255 196 0
-51.898998 68.450996 33.709 255 200 0
-51.242001 69.600998 34.014 255 197 0
-50.653999 68.472 34.375 255 193 0
-50.595001 69.017998 34.264 255 194 0
-50.652 69.587997 34.345001 255 194 0
-50.231998 69.011002 34.915001 255 189 0
-50.355 69.600998 34.915001 255 189 0
-51.855 70.150002 34.323002 255 194 0
-51.293999 70.176003 34.425999 255 193 0
-51.845001 70.198997 34.924999 255 188 0
-51.231998 70.307999 34.966 255 188 0
-50.749001 70.127998 34.924 255 188 0
-52.403 71.360001 33.338001 255 203 0
-53.108002 71.445999 33.757999 255 199 0
-52.423 72.560997 33.407001 255 202 0
-54.178001 72.546997 33.782001 255 199 0
-54.139999 73.147003 33.473999 255 202 0
-53.491001 72.556 33.744999 255 199 0
-53.011002 72.550003 33.662998 255 200 0
-53.011002 73.139999 33.412998 255 202 0
-52.358002 73.197998 33.179001 255 204 0
-53.584 71.375 34.335999 255 194 0
-53.601002 71.959999 33.937 255 197 0
-54.189999 71.790001 34.247002 255 195 0
-53.601002 71.272003 34.915001 255 189 0
-54.167 71.538002 34.921001 255 188 0
-54.780998 71.515999 34.915001 255 189 0
-51.832001 71.370003 32.849998 255 207 0
-52.167999 71.959999 33.145 255 205 0
-52.125 72.550003 33.145 255 205 0
-52.769001 75.476997 31.919001 255 216 0
-52.554001 74.648003 31.934 255 216 0
-52.293999 74.931 30.763 255 226 0
-52.422001 73.301003 32.556 255 210 0
-52.483002 73.727997 31.965 255 215 0
-53.009998 73.731003 32.555 255 210 0
-52.999001 74.320999 32.431 255 211 0
-53.089001 75.043999 32.516998 255 210 0
-52.062 73.738998 31.219999 255 222 0
-52.076 74.228996 30.919001 255 225 0
-52.514999 76.102997 30.716 255 227 0
-52.777 76.560997 31.389 255 221 0
-52.436001 77.246002 31.087999 255 223 0
-53.023998 76.616997 31.950001 255 216 0
-53.73 76.042999 33.012001 255 206 0
-53.830002 76.648003 33.056 255 205 0
-53.058998 77.485001 31.912001 255 216 0
-52.529999 78.275002 31.599001 255 219 0
-53.896 77.262001 33.122002 255 205 0
-53.705002 77.872002 32.905998 255 207 0
-54.108002 73.711998 33.259998 255 204 0
-53.598999 73.705002 32.963001 255 206 0
-54.116001 74.225998 33.261002 255 204 0
-53.011002 73.366997 33.145 255 205 0
-54.095001 74.945 33.477001 255 202 0
-54.237999 75.837997 33.611 255 200 0
-53.715 75.502998 33.141998 255 205 0
-54.191002 77.026001 33.784 255 199 0
-54.266998 77.871002 33.713001 255 199 0
-54.191002 77.267998 33.924999 255 198 0
-54.261002 77.267998 34.325001 255 194 0
-52.422001 69.896004 35.504002 255 183 0
-52.522999 69.556999 36.035 255 178 0
-53.011002 70.191002 36.096001 255 178 0
-53.585999 71.073997 35.490002 255 183 0
-53.604 70.778999 36.075001 255 178 0
-54.200001 69.009003 36.693001 255 172 0
-53.556999 68.999001 36.687 255 172 0
-54.478001 69.600998 36.683998 255 172 0
-54.422001 69.600998 37.273998 255 167 0
-54.191002 69.313004 37.273998 255 167 0
-53.601002 69.170998 37.273998 255 167 0
-53.011002 69.011002 36.363998 255 175 0
-52.939999 68.466003 36.061001 255 178 0
-52.422001 69.011002 36.265999 255 176 0
-53.046001 69.599998 36.675999 255 172 0
-53.111 69.600998 37.273998 255 167 0
-54.474998 70.191002 36.683998 255 172 0
-54.187 70.763 36.664001 255 173 0
-53.601002 70.591003 36.683998 255 172 0
-54.556 70.191002 37.273998 255 167 0
-54.191002 70.753998 37.273998 255 167 0
-53.601002 70.723999 37.273998 255 167 0
-53.222 70.191002 36.683998 255 172 0
-53.108002 70.191002 37.273998 255 167 0
-51.120998 69.045998 36.196999 255 177 0
-51.242001 69.600998 35.779999 255 181 0
-51.848 69.442001 36.039001 255 178 0
-50.348999 69.011002 35.504002 255 183 0
-50.660999 69.580002 35.499001 255 183 0
-50.652 69.011002 35.870998 255 180 0
-51.832001 69.928001 35.504002 255 183 0
-51.242001 70.004997 35.504002 255 183 0
-51.832001 69.011002 36.367001 255 175 0
-54.158001 71.359001 35.925999 255 179 0
-54.191002 71.528 35.504002 255 183 0
-54.780998 71.737999 35.504002 255 183 0
-54.191002 71.190002 36.094002 255 178 0
-54.780998 71.362 36.094002 255 178 0
-54.191002 71.579002 36.094002 255 178 0
-54.780998 71.959999 35.514999 255 183 0
-54.191002 71.959999 35.626999 255 182 0
-53.974998 71.959999 36.094002 255 178 0
-54.191002 72.550003 35.592999 255 182 0
-54.780998 72.550003 35.544998 255 183 0
-53.713001 72.550003 36.094002 255 178 0
-54.191002 73.139999 35.747002 255 181 0
-54.780998 73.139999 35.723 255 181 0
-53.773998 73.139999 36.094002 255 178 0
-54.187 71.93 36.686001 255 172 0
-53.824001 72.550003 36.683998 255 172 0
-53.806999 73.139999 36.683998 255 172 0
-54.191002 72.550003 36.952999 255 170 0
-54.191002 73.139999 36.970001 255 170 0
-54.174 69.628998 37.852001 255 162 0
-53.605 69.529999 37.942001 255 161 0
-53.299 69.600998 37.863998 255 162 0
-54.472 70.191002 37.863998 255 162 0
-54.191002 70.678001 37.863998 255 162 0
-53.601002 70.660004 37.863998 255 162 0
-54.191002 70.191002 38.116001 255 159 0
-53.601002 70.191002 38.195 255 159 0
-53.171001 70.191002 37.863998 255 162 0
-54.191002 73.501999 36.094002 255 178 0
-54.191002 73.57 36.683998 255 172 0
-56.536999 78.504997 35.053001 255 187 0
-55.369999 78.447998 34.528999 255 192 0
-54.800999 78.447998 34.282001 255 194 0
-54.780998 78.113998 34.325001 255 194 0
-55.978001 79.422997 34.882999 255 189 0
-55.398998 79.068001 34.556 255 192 0
-54.755001 78.954002 34.320999 255 194 0
-54.282001 80.056 34.616001 255 191 0
-54.971001 80.741997 34.931 255 188 0
-61.485001 82.153 38.424999 255 156 0
-62.375 81.217003 38.674 255 154 0
-61.889 81.183998 38.452 255 156 0
-62.477001 83.011002 39.182999 255 150 0
-61.91 82.999001 38.861 255 152 0
-62.983002 82.810997 39.323002 255 148 0
-63.089001 81.487999 39.061001 255 151 0
-60.658001 80.240997 37.931 255 161 0
-59.717999 79.877998 37.500999 255 165 0
-60.222 81.499001 37.872002 255 162 0
-59.553001 81.102997 37.508999 255 165 0
-60.487999 83.153999 38.126999 255 159 0
-59.362 82.140999 37.604 255 164 0
-58.362999 78.410004 36.196999 255 177 0
-57.736 78.468002 35.486 255 183 0
-57.139999 78.447998 35.088001 255 187 0
-56.933998 79.072998 35.527 255 183 0
-57.666 79.025002 36.182999 255 177 0
-57.087002 79.556999 36.164001 255 177 0
-59.471001 79.022003 37.264999 255 167 0
-57.856998 79.593002 36.648998 255 173 0
-58.313999 79.038002 36.686001 255 172 0
-58.941002 80.769997 37.127998 255 168 0
-58.223 80.136002 36.801998 255 171 0
-57.139999 80.217003 36.368 255 175 0
-56.549999 79.037003 35.242001 255 186 0
-56.525002 79.547997 35.486 255 183 0
-56.091 80.184998 35.415001 255 184 0
-56.640999 80.369003 36.008999 255 179 0
-58.167 80.832001 36.699001 255 172 0
-58.735001 81.546997 37.176998 255 168 0
-57.139999 80.806999 36.356998 255 175 0
-57.758999 81.445999 36.632999 255 173 0
-57.139999 81.396004 36.419998 255 175 0
-57.099998 82.734001 36.98 255 170 0
-58.554001 82.043999 37.261002 255 167 0
-57.827 82.613998 37.203999 255 168 0
-56.548 80.804001 36.094002 255 178 0
-55.952999 80.806 35.794998 255 180 0
-55.951 81.202003 36.139 255 177 0
-55.231998 80.989998 35.231998 255 186 0
-54.832001 81.470001 35.313 255 185 0
-55.425999 81.477997 36.084 255 178 0
-54.820999 82.031998 36.09 255 178 0
-56.549999 81.396004 36.324001 255 176 0
-56.532001 82.285004 36.714001 255 172 0
-55.707001 81.949997 36.43 255 175 0
-56.238998 82.697998 36.73 255 172 0
-55.234001 82.543999 36.388 255 175 0
-58.308998 78.366997 39.631001 255 145 0
-57.735001 78.646004 39.695 255 145 0
-58.319 77.858002 39.34 255 148 0
-57.729 77.858002 39.068001 255 151 0
-57.084 78.542999 39.631001 255 145 0
-56.544998 78.752998 40.081001 255 141 0
-58.912998 82.834999 37.596001 255 164 0
-61.997002 83.665001 38.966 255 152 0
-63.237 83.682999 39.410999 255 147 0
-63.035999 84.419998 39.528999 255 146 0
-62.040001 84.237 39.124001 255 150 0
-62.974998 84.906998 39.863998 255 143 0
-61.264 84.793999 39.478001 255 147 0
-61.401001 84.345001 39.039001 255 151 0
-61.098999 83.610001 38.463001 255 156 0
-60.683998 83.874001 38.355 255 157 0
-59.620998 83.275002 37.820999 255 162 0
-59.237999 83.814003 37.881001 255 161 0
-59.691002 84.413002 38.404999 255 157 0
-60.740002 84.425003 38.810001 255 153 0
-59.202 85.022003 38.924 255 152 0
-59.334 85.532997 39.610001 255 146 0
-56.612999 83.693001 37.148998 255 168 0
-55.473999 83.775002 36.563 255 173 0
-55.369999 83.166 36.425999 255 175 0
-54.751999 83.719002 36.348 255 175 0
-57.033001 84.390999 37.319 255 167 0
-55.945 84.421997 37.176998 255 168 0
-55.119999 84.331001 36.731998 255 172 0
-55.02 84.873001 37.189999 255 168 0
-58.319 83.166 37.516998 255 165 0
-57.846001 83.818001 37.429001 255 166 0
-58.181999 84.431 37.785999 255 162 0
-58.363998 84.959 38.421001 255 157 0
-57.234001 85.166 37.808998 255 162 0
-57.032001 84.939003 37.561001 255 164 0
-55.959999 84.934998 37.445 255 165 0
-57.729 85.286003 38.452999 255 156 0
-56.923 85.568001 38.412998 255 157 0
-58.319 85.290001 39.042999 255 151 0
-57.821999 85.752998 39.617001 255 146 0
-57.526001 85.523003 39.089001 255 150 0
-56.865002 86.067001 39.699001 255 145 0
-56.500999 85.399002 37.867001 255 162 0
-55.959999 85.720001 38.452999 255 156 0
-55.290001 85.43 37.868999 255 162 0
-54.250999 85.569 37.855999 255 162 0
-54.491001 86.070999 38.699001 255 154 0
-56.549999 85.791 39.042999 255 151 0
-55.691002 86.099998 39.032001 255 151 0
-55.799999 87.084999 39.741001 255 144 0
-53.872002 86.457001 39.049999 255 151 0
-55.349998 87.085999 39.570999 255 146 0
-54.34 87.306 39.609001 255 146 0
-53.501999 79.001999 33.151001 255 205 0
-52.186001 79.046997 31.757 255 217 0
-52.481998 79.75 32.735001 255 208 0
-51.884998 78.532997 30.77 255 226 0
-51.333 79.249001 30.542 255 228 0
-51.273998 80.001999 31.448 255 220 0
-50.667 79.889999 30.780001 255 226 0
-50.709 80.380997 31.271999 255 222 0
-51.716 79.834 31.921 255 216 0
-49.931 80.998001 31.535 255 219 0
-51.073002 80.746002 31.997 255 215 0
-51.816002 80.744003 32.636002 255 209 0
-51.213001 81.268997 32.585999 255 210 0
-49.595001 82.117996 32.458 255 211 0
-54.104 78.463997 33.618999 255 200 0
-54.09 79.087997 33.980999 255 197 0
-53.259998 79.949997 33.763 255 199 0
-54.136002 79.547997 34.341999 255 194 0
-53.234001 80.723 34.313 255 194 0
-52.382999 81.019997 33.799 255 199 0
-53.856998 80.780998 34.678001 255 191 0
-53.93 81.525002 34.999001 255 188 0
-52.521999 81.497002 34.363998 255 194 0
-53.519001 81.976997 35.062 255 187 0
-52.289001 81.947998 34.383999 255 193 0
-53.005001 82.478996 34.917 255 188 0
-52.280998 82.961998 34.638 255 191 0
-51.799999 81.343002 33.183998 255 204 0
-51.210999 81.910004 33.167999 255 204 0
-51.731998 81.931 33.762001 255 199 0
-51.224998 82.565002 33.752998 255 199 0
-50.481998 82.623001 33.352001 255 203 0
-51.860001 82.585999 34.297001 255 194 0
-48.854 81.112999 31.243 255 222 0
-47.841999 81.448997 31.41 255 221 0
-47.308998 80.939003 30.782 255 226 0
-49.486 81.469002 31.712 255 218 0
-48.832001 82.043999 32.091999 255 214 0
-48.763 82.595001 32.658001 255 209 0
-47.443001 82.538002 32.569 255 210 0
-46.002998 80.915001 30.782 255 226 0
-46.153 81.387001 31.34 255 221 0
-44.771 81.446999 31.016001 255 224 0
-46.804001 82.192001 32.113998 255 214 0
-46.436001 82.724998 32.514999 255 210 0
-45.924999 81.989998 31.827 255 217 0
-44.793999 82.007004 31.488001 255 220 0
-44.886002 82.637001 31.927 255 216 0
-49.481998 83.057999 33.252998 255 204 0
-52.960999 83.686996 35.146 255 186 0
-52.423 83.733002 34.950001 255 188 0
-50.562 83.151001 33.845001 255 198 0
-51.699001 83.181 34.457001 255 193 0
-52.035 83.758003 34.898998 255 189 0
-51.264999 83.730003 34.619999 255 191 0
-50.653999 83.703003 34.382 255 193 0
-50.091 83.681999 34.373001 255 193 0
-51.242001 83.995003 34.915001 255 189 0
-50.652 84.029999 34.915001 255 189 0
-45.342999 83.058998 32.577999 255 210 0
-48.866001 83.133003 33.193001 255 204 0
-49.473 83.377998 33.735001 255 199 0
-48.882999 83.362 33.735001 255 199 0
-48.292999 83.002998 33.145 255 205 0
-47.419998 82.873001 33.157001 255 205 0
-48.332001 83.164001 33.735001 255 199 0
-47.702999 82.915001 33.735001 255 199 0
-49.473 83.528999 34.325001 255 194 0
-48.905998 83.228996 34.325001 255 194 0
-49.742001 83.709999 34.915001 255 189 0
-48.923 83.047997 34.939999 255 188 0
-48.292999 82.883003 34.325001 255 194 0
-47.702999 82.685997 34.325001 255 194 0
-48.120998 82.772003 34.877998 255 189 0
-46.237999 83.071999 33.193001 255 204 0
-47.113998 82.891998 33.735001 255 199 0
-46.280998 83.176003 33.694 255 200 0
-45.342999 83.480003 33.658001 255 200 0
-47.113998 82.695 34.325001 255 194 0
-46.237 83.108002 34.130001 255 196 0
-47.113998 82.686996 34.915001 255 189 0
-46.523998 82.908997 34.915001 255 189 0
-45.262001 83.480003 34.916 255 189 0
-46.023998 83.206001 34.910999 255 189 0
-54.221001 82.040001 35.463001 255 184 0
-53.611 82.664001 35.478001 255 183 0
-54.216 82.692001 36.103001 255 178 0
-53.469002 83.750999 35.658001 255 182 0
-54.021 83.761002 36.154999 255 177 0
-53.535999 84.167 36.094002 255 178 0
-53.011002 84.028999 35.504002 255 183 0
-52.167999 84.277 35.557999 255 183 0
-51.879002 84.574997 36.022999 255 178 0
-54.011002 84.288002 36.351002 255 175 0
-54.191002 84.615997 36.683998 255 172 0
-52.969002 84.747002 36.785 255 171 0
-53.950001 85.117996 37.292999 255 167 0
-51.91 85.071999 36.758999 255 172 0
-51.216 84.567001 35.917999 255 179 0
-50.729 84.482002 35.875999 255 180 0
-50.028 84.077003 35.500999 255 183 0
-50.058998 84.362999 36.084 255 178 0
-51.319 85.245003 37.166 255 168 0
-50.605 85.046997 37.112 255 168 0
-50.091 84.785004 36.712002 255 172 0
-52.516998 85.343002 37.264999 255 167 0
-51.832001 85.402 37.273998 255 167 0
-49.523998 84.883003 36.82 255 171 0
-53.341999 85.499001 37.702 255 163 0
-52.523998 85.612999 37.778999 255 162 0
-52.497002 86.018997 38.480999 255 156 0
-53.389999 86.098999 38.625 255 155 0
-53.227001 87.252998 39.285999 255 149 0
-53.106998 86.741997 39.005001 255 151 0
-52.422001 86.750999 39.008999 255 151 0
-52.067001 87.827003 39.384998 255 148 0
-51.784 85.635002 37.797001 255 162 0
-51.271 85.635002 37.824001 255 162 0
-51.667999 86.109001 38.464001 255 156 0
-50.679001 86.125999 38.198002 255 159 0
-50.667999 85.580002 37.792999 255 162 0
-50.188999 85.763 37.862 255 162 0
-50.368 86.609001 38.450001 255 156 0
-51.817001 86.710999 39.049 255 151 0
-51.706001 87.239998 39.187 255 150 0
-50.435001 87.125999 38.681 255 154 0
-48.949001 83.095001 35.500999 255 183 0
-48.882999 83.769997 36.070999 255 178 0
-49.499001 83.939003 36.029999 255 178 0
-48.598 83.165001 35.494999 255 183 0
-47.964001 83.165001 35.506001 255 183 0
-48.335999 83.820999 35.834 255 180 0
-47.702999 83.754997 35.654999 255 182 0
-47.743 84.417 35.813999 255 180 0
-49.473 84.345001 36.424999 255 175 0
-48.882999 84.345001 36.469002 255 174 0
-48.827999 84.911003 36.733002 255 172 0
-47.842999 85.543999 36.646999 255 173 0
-47.103001 83.042 35.576 255 182 0
-46.764999 83.172997 35.498001 255 183 0
-47.113998 83.754997 35.673 255 182 0
-46.534 83.475998 35.515999 255 183 0
-45.939999 83.724998 35.509998 255 183 0
-45.341999 83.742996 35.504002 255 183 0
-47.113998 84.345001 35.743 255 181 0
-46.026001 84.357002 35.794998 255 180 0
-47.219002 85.174004 36.145 255 177 0
-46.563 85.086998 36.070999 255 178 0
-45.214001 84.341003 35.956001 255 179 0
-45.868999 85.028999 36.120998 255 178 0
-45.247002 84.828003 36.179001 255 177 0
-48.951 85.523003 37.257 255 167 0
-48.126999 86.081001 37.380001 255 166 0
-46.709999 86.171997 36.655998 255 173 0
-45.344002 85.525002 36.396 255 175 0
-45.595001 86.072998 36.676998 255 172 0
-46.669998 86.755997 37.255001 255 167 0
-45.911999 86.768997 37.208 255 168 0
-48.889999 86.143997 37.84 255 162 0
-49.188999 86.672997 38.125 255 159 0
-48.946999 87.313004 38.32 255 157 0
-48.172001 87.120003 38.058998 255 160 0
-47.493999 87.037003 37.783001 255 162 0
-46.826 87.331001 37.819 255 162 0
-45.933998 87.293999 37.566002 255 164 0
-45.263 87.361 37.706001 255 163 0
-58.269001 75.605003 40.265999 255 140 0
-57.645 75.517998 39.634998 255 145 0
-57.729 75.148003 40.223 255 140 0
-57.131001 74.879997 40.223 255 140 0
-58.259998 75.574997 40.821999 255 135 0
-57.729 75.18 40.812 255 135 0
-57.173 74.956001 40.794998 255 135 0
-57.730999 75.541 41.318001 255 130 0
-57.155998 75.589996 41.361 255 130 0
-56.549999 75.499001 39.762001 255 144 0
-56.549999 75.033997 40.223 255 140 0
-56.243999 75.499001 40.223 255 140 0
-56.542999 75.234001 40.804001 255 135 0
-56.416 75.499001 40.812 255 135 0
-58.307999 76.134003 39.644001 255 145 0
-58.380001 76.028 41.451 255 129 0
-58.652 76.088997 40.812 255 135 0
-59.005001 76.929001 41.445 255 129 0
-58.973 76.656998 40.817001 255 135 0
-58.313 76.691002 41.990002 255 124 0
-57.714001 76.138 41.974998 255 124 0
-57.136002 76.121002 41.990002 255 124 0
-59.146999 77.222 40.851002 255 134 0
-59.179001 77.858002 41.402 255 129 0
-59.221001 77.858002 40.812 255 135 0
-58.830002 77.346001 41.957001 255 124 0
-58.898998 77.865997 41.987 255 124 0
-56.289001 76.088997 40.223 255 140 0
-56.257 76.678001 40.223 255 140 0
-56.362999 76.088997 40.812 255 135 0
-56.241001 76.678001 40.812 255 135 0
-56.034 77.267998 40.223 255 140 0
-55.950001 77.896004 40.362999 255 139 0
-55.970001 77.313004 40.789001 255 135 0
-56.558998 76.069 41.324001 255 130 0
-56.118999 76.678001 41.402 255 129 0
-56.438 76.586998 42.044998 255 123 0
-55.858002 77.237999 41.412998 255 129 0
-56.035 77.251999 41.98 255 124 0
-56.183998 77.858002 41.992001 255 124 0
-55.903 77.877998 41.463001 255 129 0
-58.231998 77.098 42.174 255 122 0
-57.127998 76.730003 42.269001 255 121 0
-58.319 77.858002 42.394001 255 120 0
-57.779999 77.417 42.294998 255 121 0
-57.139999 77.858002 42.320999 255 121 0
-56.549999 77.267998 42.264999 255 121 0
-56.549999 77.858002 42.175999 255 122 0
-59.112999 78.447998 41.402 255 129 0
-59.117001 78.447998 40.812 255 135 0
-58.962002 79.021004 41.498001 255 128 0
-58.915001 79.005997 40.856998 255 134 0
-58.898998 78.447998 41.987999 255 124 0
-58.816002 79.037003 41.992001 255 124 0
-58.298 80.174004 41.525002 255 128 0
-57.631001 80.169998 40.838001 255 134 0
-58.319 79.651001 40.812 255 135 0
-56.263 78.447998 40.223 255 140 0
-57.141998 79.186996 40.012001 255 142 0
-56.007 78.238998 40.814999 255 135 0
-56.268002 79.037003 40.812 255 135 0
-56.521 80.183998 40.813 255 135 0
-56.347 79.626999 40.812 255 135 0
-57.127998 80.339996 40.726002 255 135 0
-56.166 78.447998 41.402 255 129 0
-56.306999 79.037003 41.402 255 129 0
-56.549 78.461998 42.007999 255 124 0
-56.245998 79.612999 41.921001 255 125 0
-56.5 80.358002 41.681999 255 127 0
-56.348 80.217003 41.992001 255 124 0
-57.715 80.722 41.907001 255 125 0
-57.167999 80.739998 41.805 255 126 0
-58.387001 80.299004 42 255 124 0
-58.300999 78.5 42.589001 255 118 0
-58.345001 79.066002 42.827999 255 116 0
-57.702 78.418999 42.619999 255 118 0
-57.169998 78.480003 42.477001 255 119 0
-58.056999 79.037003 43.171001 255 113 0
-57.737 78.995003 43.301998 255 112 0
-57.108002 79.002998 43.249001 255 112 0
-58.299999 79.643997 43.159 255 113 0
-58.182999 80.217003 43.171001 255 113 0
-58.342999 80.334 42.603001 255 118 0
-57.729 79.626999 43.611 255 109 0
-57.139999 79.626999 43.578999 255 109 0
-57.729 80.217003 43.445999 255 111 0
-57.118999 80.394997 43.254002 255 112 0
-56.554001 79.009003 42.41 255 120 0
-56.296001 79.626999 42.582001 255 119 0
-56.310001 80.217003 42.582001 255 119 0
-56.571999 79.626999 43.155998 255 113 0
-56.625 80.198997 43.056999 255 114 0
-57.735001 80.807999 42.584 255 119 0
-57.141998 80.806999 42.57 255 119 0
-57.729 80.560997 43.171001 255 113 0
-56.549999 80.540001 42.582001 255 119 0
-63.589001 85.486 40.419998 255 138 0
-62.519001 85.392998 40.300999 255 139 0
-63.415001 86.160004 40.971001 255 133 0
-61.203999 85.518997 40.216999 255 140 0
-62.199001 86.158997 40.806 255 135 0
-63.181999 86.810997 41.369999 255 130 0
-63.626999 87.293999 41.758999 255 126 0
-62.833 87.276001 41.466999 255 129 0
-62.448002 86.704002 41.104 255 132 0
-61.715 87.283997 41.208 255 131 0
-60.847 86.380997 40.713001 255 136 0
-59.834 86.087997 40.27 255 140 0
-59.990002 87.112999 40.808998 255 135 0
-59.169998 86.758003 40.502998 255 138 0
-60.678001 87.293999 41.110001 255 132 0
-58.529999 86.303001 40.060001 255 142 0
-57.729 86.114998 39.903999 255 143 0
-57.987 86.803001 40.262001 255 140 0
-58.623001 87.206001 40.553001 255 137 0
-56.821999 86.666 40.026001 255 142 0
-56.641998 87.496002 40.186001 255 140 0
-73.220001 88.149002 43.976002 255 106 0
-72.227997 88.196999 43.741001 255 108 0
-70.775002 88.830002 43.395 255 111 0
-69.193001 88.049004 42.960999 255 115 0
-69.777 89.514 43.153999 255 113 0
-68.134003 89.066002 42.678001 255 118 0
-68.135002 89.544998 42.721001 255 117 0
-72.333 89.598999 43.918999 255 106 0
-64.468002 88.455002 41.917 255 125 0
-64.153 89.487 41.874001 255 125 0
-65.139999 89.711998 42.109001 255 123 0
-67.539001 88.539001 42.561001 255 119 0
-65.652 88.712997 42.189999 255 122 0
-64.747002 87.887001 42.055 255 123 0
-75.612 98.603996 43.998001 255 106 0
-75.936996 97.830002 44.198002 255 104 0
-74.546997 97.992996 43.796001 255 107 0
-75.540001 100.47 43.945999 255 106 0
-74.849998 99.214996 43.834 255 107 0
-73.653 97.933998 43.763 255 108 0
-74.013 98.411003 43.702 255 108 0
-73.962997 99.438004 43.769001 255 108 0
-76.321999 101.85 44.334999 255 103 0
-76.980003 100.84 44.403 255 102 0
-74.785004 100.56 43.777 255 108 0
-74.258003 100.57 43.698002 255 108 0
-73.608002 100.27 43.750999 255 108 0
-74.293999 101.29 43.783001 255 108 0
-73.660004 101.26 43.775002 255 108 0
-74.956001 102.02 44.077999 255 105 0
-75.800003 102.6 44.431999 255 102 0
-74.838997 102.82 44.327999 255 103 0
-74.252998 102.39 44.103001 255 105 0
-73.653 102.04 43.993 255 106 0
-73.628998 102.73 44.327999 255 103 0
-77.226997 101.64 44.685001 255 99 0
-77.087997 102.61 44.952 255 97 0
-72.977997 98.848 43.748001 255 108 0
-73.032997 97.948997 43.849998 255 107 0
-72.499001 98.779999 43.877998 255 107 0
-72.473999 97.910004 44.008999 255 105 0
-72.515999 99.986 43.905998 255 106 0
-73.324997 100.59 43.807999 255 107 0
-65.371002 99.108002 48.93 255 61 0
-64.505997 99.057999 48.776001 255 62 0
-64.806999 99.68 49.068001 255 59 0
-64.203003 99.722 49.044998 255 60 0
-53.615002 87.822998 39.698002 255 145 0
-53.009998 87.878998 39.641998 255 145 0
-52.979 88.452003 39.674 255 145 0
-51.696999 88.535004 39.425999 255 147 0
-52.124001 89.113998 39.458 255 147 0
-53.464001 89.014 39.710999 255 145 0
-53.305 89.832001 39.698002 255 145 0
-51.945 89.660004 39.444 255 147 0
-51.242001 87.884003 39.331001 255 148 0
-50.658001 87.891998 39.118999 255 150 0
-49.674999 87.873001 38.959999 255 152 0
-50.577999 88.494003 39.247002 255 149 0
-50.198002 89.049004 39.160999 255 150 0
-49.903 89.753998 39.140999 255 150 0
-53.655998 91.098999 39.757999 255 144 0
-52.005001 91.260002 39.450001 255 147 0
-53.539001 92.458 39.619999 255 146 0
-48.938 90.920998 39.008999 255 151 0
-50.696999 92.374001 39.191002 255 149 0
-51.694 92.251999 39.373001 255 148 0
-48.402 87.869003 38.674999 255 154 0
-48.820999 88.484001 38.916 255 152 0
-47.472 88.501999 38.674999 255 154 0
-48.686001 88.981003 38.876999 255 152 0
-48.819 89.745003 38.944 255 152 0
-47.200001 87.899002 38.444 255 156 0
-45.908001 87.893997 38.097 255 159 0
-45.938999 88.461998 38.370998 255 157 0
-45.089001 87.877998 38.125999 255 159 0
-45.043999 88.472 38.271 255 158 0
-46.196999 89.411003 38.439999 255 156 0
-44.278 89.083 38.112 255 159 0
-47.602001 90.639999 38.694 255 154 0
-48.338001 91.821999 38.856998 255 153 0
-46.537998 90.459 38.485001 255 156 0
-45.587002 91.134003 38.382 255 157 0
-46.887001 91.720001 38.592999 255 155 0
-53.008999 93.219002 39.601002 255 146 0
-51.272999 93.190002 39.325001 255 148 0
-52.528999 93.751999 39.658001 255 145 0
-51.806999 93.795998 39.505001 255 147 0
-51.648998 94.123001 39.632 255 145 0
-50.455002 93.791 39.310001 255 148 0
-49.800999 94.337997 39.639 255 145 0
-46.810001 92.630997 38.563 255 155 0
-49.408001 93.276001 39.012001 255 151 0
-47.229 93.196999 38.645 255 154 0
-49.015999 93.775002 39.055 255 151 0
-49.113998 94.387001 39.612 255 146 0
-47.429001 93.788002 38.787998 255 153 0
-48.040001 94.127998 39.035 255 151 0
-47.278999 94.319 39.087002 255 150 0
-45.868999 93.320999 38.408001 255 157 0
-44.931999 93.151001 38.259998 255 158 0
-45.133999 93.760002 38.460999 255 156 0
-46.463001 93.796997 38.668999 255 154 0
-45.691002 94.369003 39.039001 255 151 0
-45.351002 94.431 39.042 255 151 0
-47.504002 94.620003 39.632 255 145 0
-45.984001 94.745003 39.640999 255 145 0
-45.422001 94.997002 39.537998 255 146 0
-63.626999 87.884003 41.842999 255 125 0
-63.189999 87.913002 41.709 255 126 0
-61.355999 87.995003 41.331001 255 130 0
-62.960999 89.039001 41.596001 255 128 0
-61.801998 89.133003 41.373001 255 130 0
-60.678001 87.884003 41.249001 255 131 0
-60.164001 87.964996 41.091 255 132 0
-59.153 87.844002 40.882999 255 134 0
-58.417999 88.539001 40.688999 255 136 0
-59.169998 89.064003 40.783001 255 135 0
-59.532001 90.213997 40.868 255 134 0
-63.842999 91 41.814999 255 126 0
-62.564999 90.977997 41.497002 255 128 0
-63.618999 92.467003 41.650002 255 127 0
-64.282997 92.082001 41.942001 255 124 0
-62.855 92.478996 41.41 255 129 0
-60.872002 90.960999 41.146 255 132 0
-60.708 92.061996 41.026001 255 133 0
-59.265999 92.133003 40.726002 255 135 0
-58.280998 87.819 40.626999 255 136 0
-57.021999 87.888 40.363998 255 139 0
-56.867001 88.528999 40.409 255 138 0
-57.307999 89.082001 40.436001 255 138 0
-58.723999 91.204002 40.658001 255 136 0
-55.849998 87.866997 40.212002 255 140 0
-55.910999 88.459999 40.259998 255 140 0
-54.453999 87.872002 39.903 255 143 0
-53.942001 88.456001 39.833 255 144 0
-55.973999 89.093002 40.139 255 141 0
-55.988998 89.852997 40.176998 255 140 0
-57.525002 91.072998 40.453999 255 138 0
-57.956001 92.439003 40.473 255 138 0
-57.224998 93.136002 40.352001 255 139 0
-56.529999 91.223999 40.207001 255 140 0
-55.130001 90.802002 40.042999 255 142 0
-55.544998 92.294998 40.053001 255 142 0
-63.891998 93.091003 41.889 255 125 0
-62.756001 93.223 41.460999 255 129 0
-61.452999 93.253998 41.203999 255 131 0
-61.373001 94.055 41.353001 255 130 0
-62.625 93.968002 41.735001 255 126 0
-61.812 94.486 41.779999 255 126 0
-60.058998 93.205002 40.882 255 134 0
-60.25 93.791 41.016998 255 133 0
-60.443001 94.374001 41.403 255 129 0
-59.514999 93.75 40.863998 255 134 0
-59.757 94.391998 41.418999 255 129 0
-60.632999 94.957001 41.971001 255 124 0
-60.097 94.926003 42.015999 255 124 0
-59.325001 94.640999 41.998001 255 124 0
-59.283001 94.987999 42.285 255 121 0
-60.088001 95.551003 42.369999 255 120 0
-60.681999 95.695 42.467999 255 120 0
-59.645 95.850998 42.449001 255 120 0
-60.159 96.294998 42.584 255 119 0
-59.523998 96.992996 42.597 255 118 0
-60.678001 96.730003 42.902 255 116 0
-58.570999 93.206001 40.605999 255 137 0
-58.390999 93.882004 40.747002 255 135 0
-57.361 93.785004 40.570999 255 137 0
-57.555 94.037003 40.832001 255 134 0
-58.971001 94.314003 41.438 255 129 0
-57.970001 94.237 41.402 255 129 0
-58.202 94.372002 41.995998 255 124 0
-56.687 94.286003 41.409 255 129 0
-57.724998 94.355003 42.252998 255 122 0
-57.139999 94.268997 41.992001 255 124 0
-55.111 93.163002 39.979 255 142 0
-56.595001 93.393997 40.195 255 140 0
-56.187 93.781998 40.224998 255 140 0
-56.176998 94.218002 40.807999 255 135 0
-54.194 93.800003 40.022999 255 142 0
-54.956001 93.960999 40.226002 255 140 0
-55.011002 94.241997 40.792999 255 135 0
-55.729 94.285004 41.307999 255 130 0
-55.962002 94.351997 42.174 255 122 0
-54.674 94.231003 41.417999 255 129 0
-55.369999 94.266998 41.992001 255 124 0
-54.749001 94.331001 42.202 255 122 0
-57.578999 94.382004 42.562 255 119 0
-57.139999 94.218002 42.582001 255 119 0
-57.139999 94.371002 42.952999 255 115 0
-56.403999 94.316002 42.581001 255 119 0
-56.549999 94.371002 42.794998 255 117 0
-55.341999 94.442001 42.530998 255 119 0
-58.050999 94.968002 42.557999 255 119 0
-58.953999 95.839996 42.458 255 120 0
-58.319 95.551003 42.494999 255 119 0
-57.730999 95.991997 42.497002 255 119 0
-57.729 94.960999 42.695 255 117 0
-57.139999 94.960999 43.033001 255 114 0
-57.139 95.602997 42.613998 255 118 0
-58.737999 97.778 42.589001 255 118 0
-57.792999 96.935997 42.497002 255 119 0
-55.959999 94.616997 42.582001 255 119 0
-56.549999 94.960999 42.938999 255 115 0
-55.959999 94.960999 42.66 255 118 0
-56.563 95.679001 42.611 255 118 0
-55.584 95.793999 42.549 255 119 0
